# .PCD v0.7 - Point Cloud Data file format
VERSION 0.7
FIELDS x y z
SIZE 4 4 4
TYPE F F F
COUNT 1 1 1
WIDTH 1463
HEIGHT 1
VIEWPOINT 0 0 0 1 0 0 0
POINTS 1463
DATA ascii
3.354367 -0.75913459 0.85962081
3.3661554 -0.75584185 0.85952049
3.3540542 -0.75842834 0.84604275
3.3658426 -0.7551356 0.8459425
3.3543828 -0.75916988 0.86029971
3.3661711 -0.7558772 0.86019945
3.3540387 -0.75839305 0.84536386
3.3658271 -0.75510031 0.8452636
3.3543983 -0.75920522 0.8609786
3.3661866 -0.75591248 0.86087835
3.354023 -0.7583577 0.84468496
3.3658113 -0.75506502 0.84458464
3.354414 -0.75924051 0.8616575
3.3662024 -0.75594783 0.86155725
3.3540072 -0.75832242 0.84400606
3.3657956 -0.75502968 0.84390575
3.3544295 -0.75927585 0.8623364
3.3662179 -0.75598311 0.86223614
3.3539917 -0.75828707 0.84332716
3.3657801 -0.75499439 0.84322685
3.3544452 -0.75931114 0.86301529
3.3662336 -0.7560184 0.86291504
3.353976 -0.75825179 0.84264827
3.3657644 -0.75495905 0.84254795
3.354461 -0.75934649 0.86369419
3.3662493 -0.75605375 0.86359394
3.3539605 -0.75821644 0.84196937
3.3657489 -0.75492376 0.84186906
3.3544765 -0.75938177 0.86437315
3.3662648 -0.75608903 0.86427283
3.3539448 -0.75818115 0.84129041
3.3657331 -0.75488842 0.84119016
3.3544922 -0.75941706 0.86505204
3.3662806 -0.75612438 0.86495173
3.353929 -0.75814581 0.84061152
3.3657174 -0.75485313 0.84051126
3.3545077 -0.7594524 0.86573094
3.3662961 -0.75615966 0.86563063
3.3539135 -0.75811052 0.83993262
3.3657019 -0.75481778 0.83983237
3.3545234 -0.75948769 0.86640984
3.3663118 -0.75619501 0.86630952
3.3538978 -0.75807524 0.83925372
3.3656862 -0.7547825 0.83915347
3.3545392 -0.75952303 0.86708874
3.3663275 -0.75623029 0.86698842
3.3538823 -0.75803989 0.83857483
3.3656707 -0.75474721 0.83847457
3.3545547 -0.75955832 0.86776763
3.366343 -0.75626564 0.86766738
3.3538666 -0.75800461 0.83789593
3.3656549 -0.75471187 0.83779567
3.3545704 -0.75959367 0.86844653
3.3663588 -0.75630093 0.86834627
3.3538508 -0.75796926 0.83721703
3.3656392 -0.75467658 0.83711672
3.3545859 -0.75962895 0.86912543
3.3663743 -0.75633621 0.86902517
3.3538353 -0.75793397 0.83653814
3.3656237 -0.75464123 0.83643782
3.3546016 -0.7596643 0.86980432
3.36639 -0.75637156 0.86970407
3.3538196 -0.75789863 0.83585924
3.365608 -0.75460595 0.83575892
3.3546174 -0.75969958 0.87048322
3.3664057 -0.75640684 0.87038296
3.3538041 -0.75786334 0.83518034
3.3655925 -0.7545706 0.83508003
3.3546329 -0.75973487 0.87116212
3.3664212 -0.75644219 0.87106186
3.3537884 -0.757828 0.83450145
3.3655767 -0.75453532 0.83440113
3.3546486 -0.75977021 0.87184107
3.366437 -0.75647748 0.87174076
3.3537726 -0.75779271 0.83382249
3.365561 -0.75449997 0.83372223
3.3546641 -0.7598055 0.87251997
3.3664525 -0.75651282 0.87241966
3.3537571 -0.75775743 0.83314359
3.3655455 -0.75446469 0.83304334
3.3546798 -0.75984085 0.87319887
3.3664682 -0.75654811 0.87309855
3.3537414 -0.75772208 0.83246469
3.3655298 -0.7544294 0.83236444
3.3546956 -0.75987613 0.87387776
3.3664839 -0.75658345 0.87377745
3.3537259 -0.75768679 0.8317858
3.3655143 -0.75439405 0.83168554
3.3547111 -0.75991148 0.87455666
3.3664994 -0.75661874 0.87445635
3.3537102 -0.75765145 0.8311069
3.3654985 -0.75435877 0.83100665
3.3547268 -0.75994676 0.87523556
3.3665152 -0.75665402 0.8751353
3.3536947 -0.75761616 0.830428
3.365483 -0.75432342 0.83032769
3.3547423 -0.75998205 0.87591445
3.3665307 -0.75668937 0.8758142
3.3536789 -0.75758082 0.82974911
3.3654673 -0.75428814 0.82964879
3.354758 -0.7600174 0.87659335
3.3665464 -0.75672466 0.8764931
3.3536632 -0.75754553 0.82907021
3.3654516 -0.75425279 0.8289699
3.3547735 -0.76005268 0.87727225
3.3665619 -0.75676 0.87717199
3.3536477 -0.75751019 0.82839131
3.3654361 -0.75421751 0.828291
3.3547893 -0.76008803 0.87795115
3.3665776 -0.75679529 0.87785089
3.353632 -0.7574749 0.82771242
3.3654203 -0.75418216 0.8276121
3.354805 -0.76012331 0.87863004
3.3665934 -0.75683063 0.87852979
3.3536165 -0.75743961 0.82703352
3.3654048 -0.75414687 0.82693321
3.3548205 -0.76015866 0.879309
3.3666089 -0.75686592 0.87920868
3.3536007 -0.75740427 0.82635456
3.3653891 -0.75411159 0.82625431
3.3548362 -0.76019394 0.8799879
3.3666246 -0.75690126 0.87988758
3.353585 -0.75736898 0.82567567
3.3653734 -0.75407624 0.82557541
3.3548517 -0.76022929 0.88066679
3.3666401 -0.75693655 0.88056648
3.3535695 -0.75733364 0.82499677
3.3653579 -0.75404096 0.82489651
3.3548675 -0.76026458 0.88134569
3.3666558 -0.75697184 0.88124537
3.3535538 -0.75729835 0.82431787
3.3653421 -0.75400561 0.82421762
3.3548832 -0.76029986 0.88202459
3.3666716 -0.75700718 0.88192427
3.3535383 -0.757263 0.82363898
3.3653266 -0.75397032 0.82353872
3.3548987 -0.76033521 0.88270348
3.3666871 -0.75704247 0.88260323
3.3535225 -0.75722772 0.82296008
3.3653109 -0.75393498 0.82285976
3.3549144 -0.76037049 0.88338238
3.3667028 -0.75707781 0.88328212
3.3535068 -0.75719237 0.82228118
3.3652952 -0.75389969 0.82218087
3.3549299 -0.76040584 0.88406128
3.3667183 -0.7571131 0.88396102
3.3534913 -0.75715709 0.82160228
3.3652797 -0.75386435 0.82150197
3.3549457 -0.76044112 0.88474017
3.366734 -0.75714844 0.88463992
3.3534756 -0.7571218 0.82092339
3.3652639 -0.75382906 0.82082307
3.3549614 -0.76047647 0.88541907
3.3667498 -0.75718373 0.88531882
3.3534601 -0.75708646 0.82024449
3.3652484 -0.75379378 0.82014418
3.3549769 -0.76051176 0.88609803
3.3667653 -0.75721908 0.88599771
3.3534443 -0.75705117 0.81956553
3.3652327 -0.75375843 0.81946528
3.3535557 -0.75896436 0.85283732
3.3666539 -0.75530583 0.85272592
3.3535557 -0.75896436 0.85283732
3.3666539 -0.75530583 0.85272592
3.3535714 -0.75899971 0.85351628
3.3666697 -0.75534111 0.85340482
3.3535402 -0.75892907 0.85215843
3.3666382 -0.75527048 0.85204703
3.3535869 -0.75903499 0.85419518
3.3666852 -0.75537646 0.85408372
3.3535244 -0.75889379 0.85147953
3.3666227 -0.7552352 0.85136813
3.3536026 -0.75907034 0.85487407
3.3667009 -0.75541174 0.85476261
3.3535087 -0.75885844 0.85080063
3.366607 -0.75519985 0.85068923
3.3536184 -0.75910562 0.85555297
3.3667164 -0.75544709 0.85544151
3.3534932 -0.75882316 0.85012174
3.3665915 -0.75516456 0.85001034
3.3536339 -0.75914097 0.85623187
3.3667321 -0.75548238 0.85612047
3.3534775 -0.75878781 0.84944284
3.3665757 -0.75512928 0.84933144
3.3536496 -0.75917625 0.85691077
3.3667479 -0.75551766 0.85679936
3.353462 -0.75875252 0.84876394
3.36656 -0.75509393 0.84865254
3.3536651 -0.7592116 0.85758966
3.3667634 -0.75555301 0.85747826
3.3534462 -0.75871718 0.84808505
3.3665445 -0.75505865 0.84797359
3.3536808 -0.75924689 0.85826856
3.3667791 -0.75558829 0.85815716
3.3534305 -0.75868189 0.84740615
3.3665287 -0.7550233 0.84729469
3.3536966 -0.75928217 0.85894746
3.3667946 -0.75562364 0.85883605
3.353415 -0.75864655 0.84672725
3.3665133 -0.75498801 0.84661579
3.3537121 -0.75931752 0.85962635
3.3668103 -0.75565892 0.85951495
3.3533993 -0.75861126 0.84604836
3.3664975 -0.75495267 0.84593689
3.3537278 -0.7593528 0.86030525
3.3668261 -0.75569427 0.86019385
3.3533838 -0.75857598 0.8453694
3.3664818 -0.75491738 0.845258
3.3537433 -0.75938815 0.86098421
3.3668416 -0.75572956 0.86087275
3.353368 -0.75854063 0.8446905
3.3664663 -0.75488204 0.8445791
3.3537591 -0.75942343 0.8616631
3.3668573 -0.7557649 0.86155164
3.3533525 -0.75850534 0.8440116
3.3664505 -0.75484675 0.8439002
3.3537748 -0.75945878 0.862342
3.3668728 -0.75580019 0.86223054
3.3533368 -0.75847 0.84333271
3.3664351 -0.75481147 0.84322131
3.3537903 -0.75949407 0.8630209
3.3668885 -0.75583547 0.86290944
3.3533211 -0.75843471 0.84265381
3.3664193 -0.75477612 0.84254241
3.353806 -0.75952941 0.86369979
3.366904 -0.75587082 0.86358839
3.3533056 -0.75839937 0.84197491
3.3664036 -0.75474083 0.84186351
3.3538215 -0.7595647 0.86437869
3.3669198 -0.75590611 0.86426729
3.3532898 -0.75836408 0.84129602
3.3663881 -0.75470549 0.84118456
3.3538373 -0.75959998 0.86505759
3.3669355 -0.75594145 0.86494619
3.3532743 -0.75832874 0.84061712
3.3663723 -0.7546702 0.84050566
3.353853 -0.75963533 0.86573648
3.366951 -0.75597674 0.86562508
3.3532586 -0.75829345 0.83993822
3.3663568 -0.75463486 0.83982676
3.3538685 -0.75967062 0.86641538
3.3669667 -0.75601208 0.86630398
3.3532429 -0.75825816 0.83925933
3.3663411 -0.75459957 0.83914787
3.3538842 -0.75970596 0.86709428
3.3669822 -0.75604737 0.86698288
3.3532274 -0.75822282 0.83858043
3.3663256 -0.75456429 0.83846897
3.3538997 -0.75974125 0.86777318
3.366998 -0.75608271 0.86766177
3.3532116 -0.75818753 0.83790147
3.3663099 -0.75452894 0.83779007
3.3539155 -0.75977659 0.86845213
3.3670137 -0.756118 0.86834067
3.3531961 -0.75815219 0.83722258
3.3662941 -0.75449365 0.83711118
3.353931 -0.75981188 0.86913103
3.3670292 -0.75615329 0.86901957
3.3531804 -0.7581169 0.83654368
3.3662786 -0.75445831 0.83643228
3.3539467 -0.75984722 0.86980993
3.3670449 -0.75618863 0.86969846
3.3531647 -0.75808156 0.83586478
3.3662629 -0.75442302 0.83575338
3.3539624 -0.75988251 0.87048882
3.3670604 -0.75622392 0.87037736
3.3531492 -0.75804627 0.83518589
3.3662474 -0.75438768 0.83507448
3.3539779 -0.7599178 0.87116772
3.3670762 -0.75625926 0.87105632
3.3531334 -0.75801092 0.83450699
3.3662317 -0.75435239 0.83439559
3.3539937 -0.75995314 0.87184662
3.3670919 -0.75629455 0.87173522
3.3531179 -0.75797564 0.83382809
3.3662159 -0.75431705 0.83371663
3.3540092 -0.75998843 0.87252551
3.3671074 -0.75632989 0.87241411
3.3531022 -0.75794035 0.83314919
3.3662004 -0.75428176 0.83303773
3.3540249 -0.76002377 0.87320441
3.3671231 -0.75636518 0.87309301
3.3530865 -0.75790501 0.8324703
3.3661847 -0.75424647 0.83235884
3.3540406 -0.76005906 0.87388331
3.3671386 -0.75640053 0.87377191
3.353071 -0.75786972 0.8317914
3.3661692 -0.75421113 0.83167994
3.3540561 -0.7600944 0.8745622
3.3671544 -0.75643581 0.8744508
3.3530552 -0.75783437 0.8311125
3.3661535 -0.75417584 0.83100104
3.3540719 -0.76012969 0.87524116
3.3671701 -0.7564711 0.8751297
3.3530397 -0.75779909 0.83043355
3.3661377 -0.7541405 0.83032215
3.3540874 -0.76016504 0.87592006
3.3671856 -0.75650644 0.8758086
3.353024 -0.75776374 0.82975465
3.3661222 -0.75410521 0.82964325
3.3541031 -0.76020032 0.87659895
3.3672013 -0.75654173 0.87648749
3.3530083 -0.75772846 0.82907575
3.3661065 -0.75406986 0.82896435
3.3541188 -0.76023561 0.87727785
3.3672168 -0.75657707 0.87716639
3.3529928 -0.75769317 0.82839686
3.366091 -0.75403458 0.82828546
3.3541343 -0.76027095 0.87795675
3.3672326 -0.75661236 0.87784529
3.352977 -0.75765783 0.82771796
3.3660753 -0.75399923 0.82760656
3.3541501 -0.76030624 0.87863564
3.3672483 -0.75664771 0.87852424
3.3529615 -0.75762254 0.82703906
3.3660595 -0.75396395 0.82692766
3.3541656 -0.76034158 0.87931454
3.3672638 -0.75668299 0.87920314
3.3529458 -0.75758719 0.82636017
3.366044 -0.75392866 0.82624871
3.3541813 -0.76037687 0.87999344
3.3672795 -0.75671834 0.87988204
3.3529301 -0.75755191 0.82568127
3.3660283 -0.75389332 0.82556981
3.354197 -0.76041222 0.88067234
3.367295 -0.75675362 0.88056093
3.3529146 -0.75751656 0.82500237
3.3660128 -0.75385803 0.82489091
3.3542125 -0.7604475 0.88135123
3.3673108 -0.75678891 0.88123983
3.3528988 -0.75748128 0.82432348
3.3659971 -0.75382268 0.82421201
3.3542283 -0.76048285 0.88203013
3.3673265 -0.75682425 0.88191873
3.3528833 -0.75744593 0.82364458
3.3659813 -0.7537874 0.82353312
3.3542438 -0.76051813 0.88270909
3.367342 -0.75685954 0.88259763
3.3528676 -0.75741065 0.82296562
3.3659658 -0.75375205 0.82285422
3.3542595 -0.76055342 0.88338798
3.3673577 -0.75689489 0.88327652
3.3528521 -0.75737536 0.82228673
3.3659501 -0.75371677 0.82217532
3.3542752 -0.76058877 0.88406688
3.3673732 -0.75693017 0.88395542
3.3528364 -0.75734001 0.82160783
3.3659346 -0.75368142 0.82149643
3.3542907 -0.76062405 0.88474578
3.367389 -0.75696552 0.88463432
3.3528206 -0.75730473 0.82092893
3.3659189 -0.75364614 0.82081753
3.3543065 -0.7606594 0.88542467
3.3674045 -0.7570008 0.88531321
3.3528051 -0.75726938 0.82025003
3.3659031 -0.75361085 0.82013863
3.354322 -0.76069468 0.88610357
3.3674202 -0.75703615 0.88599217
3.3527894 -0.7572341 0.81957114
3.3658876 -0.7535755 0.81945974
3.3529007 -0.75914729 0.85284293
3.3673089 -0.7551229 0.85272038
3.3529007 -0.75914729 0.85284293
3.3673089 -0.7551229 0.85272038
3.3529165 -0.75918263 0.85352182
3.3673244 -0.75515819 0.85339928
3.3528852 -0.759112 0.85216403
3.3672931 -0.75508755 0.85204148
3.3529322 -0.75921792 0.85420072
3.3673401 -0.75519353 0.85407817
3.3528695 -0.75907671 0.85148513
3.3672776 -0.75505227 0.85136253
3.3529477 -0.75925326 0.85487962
3.3673558 -0.75522882 0.85475707
3.352854 -0.75904137 0.85080624
3.3672619 -0.75501692 0.85068363
3.3529634 -0.75928855 0.85555851
3.3673713 -0.75526416 0.85543597
3.3528383 -0.75900608 0.85012734
3.3672464 -0.75498164 0.85000473
3.3529789 -0.75932389 0.85623741
3.3673871 -0.75529945 0.85611486
3.3528225 -0.75897074 0.84944838
3.3672307 -0.75494635 0.84932584
3.3529947 -0.75935918 0.85691631
3.3674026 -0.75533473 0.85679376
3.352807 -0.75893545 0.84876949
3.3672149 -0.75491101 0.84864694
3.3530102 -0.75939453 0.85759526
3.3674183 -0.75537008 0.85747266
3.3527913 -0.75890011 0.84809059
3.3671994 -0.75487572 0.84796804
3.3530259 -0.75942981 0.85827416
3.367434 -0.75540537 0.85815156
3.3527758 -0.75886482 0.84741169
3.3671837 -0.75484037 0.84728914
3.3530416 -0.7594651 0.85895306
3.3674495 -0.75544071 0.85883045
3.3527601 -0.75882953 0.8467328
3.3671682 -0.75480509 0.84661025
3.3530571 -0.75950044 0.85963196
3.3674653 -0.755476 0.85950941
3.3527443 -0.75879419 0.8460539
3.3671525 -0.75476974 0.84593135
3.3530729 -0.75953573 0.86031085
3.3674808 -0.75551134 0.86018831
3.3527288 -0.7587589 0.845375
3.3671367 -0.75473446 0.84525245
3.3530884 -0.75957108 0.86098975
3.3674965 -0.75554663 0.8608672
3.3527131 -0.75872356 0.8446961
3.3671212 -0.75469911 0.8445735
3.3531041 -0.75960636 0.86166865
3.3675122 -0.75558197 0.8615461
3.3526976 -0.75868827 0.84401721
3.3671055 -0.75466383 0.8438946
3.3531199 -0.75964171 0.86234754
3.3675277 -0.75561726 0.862225
3.3526819 -0.75865293 0.84333831
3.36709 -0.75462854 0.8432157
3.3531353 -0.75967699 0.86302644
3.3675435 -0.75565255 0.86290389
3.3526661 -0.75861764 0.84265941
3.3670743 -0.75459319 0.84253681
3.3531511 -0.75971234 0.86370534
3.367559 -0.75568789 0.86358279
3.3526506 -0.75858229 0.84198046
3.3670585 -0.75455791 0.84185791
3.3531666 -0.75974762 0.86438429
3.3675747 -0.75572318 0.86426169
3.3526349 -0.75854701 0.84130156
3.367043 -0.75452256 0.84117901
3.3531823 -0.75978291 0.86506319
3.3675904 -0.75575852 0.86494058
3.3526194 -0.75851172 0.84062266
3.3670273 -0.75448728 0.84050012
3.3531981 -0.75981826 0.86574209
3.3676059 -0.75579381 0.86561948
3.3526037 -0.75847638 0.83994377
3.3670118 -0.75445193 0.83982122
3.3532135 -0.75985354 0.86642098
3.3676217 -0.75582916 0.86629838
3.3525879 -0.75844109 0.83926487
3.366996 -0.75441664 0.83914232
3.3532293 -0.75988889 0.86709988
3.3676372 -0.75586444 0.86697733
3.3525724 -0.75840575 0.83858597
3.3669803 -0.7543813 0.83846343
3.3532448 -0.75992417 0.86777878
3.3676529 -0.75589979 0.86765623
3.3525567 -0.75837046 0.83790708
3.3669648 -0.75434601 0.83778453
3.3532605 -0.75995952 0.86845767
3.3676686 -0.75593507 0.86833513
3.3525412 -0.75833511 0.83722818
3.3669491 -0.75431073 0.83710557
3.3532763 -0.7599948 0.86913657
3.3676841 -0.75597036 0.86901402
3.3525255 -0.75829983 0.83654928
3.3669336 -0.75427538 0.83642668
3.3532917 -0.76003015 0.86981547
3.3676999 -0.7560057 0.86969292
3.3525097 -0.75826448 0.83587039
3.3669178 -0.7542401 0.83574778
3.3533075 -0.76006544 0.87049437
3.3677154 -0.75604099 0.87037182
3.3524942 -0.7582292 0.83519149
3.3669021 -0.75420475 0.83506888
3.353323 -0.76010072 0.87117326
3.3677311 -0.75607634 0.87105072
3.3524785 -0.75819391 0.83451253
3.3668866 -0.75416946 0.83438998
3.3533387 -0.76013607 0.87185222
3.3677468 -0.75611162 0.87172961
3.352463 -0.75815856 0.83383363
3.3668709 -0.75413412 0.83371109
3.3533545 -0.76017135 0.87253112
3.3677623 -0.75614697 0.87240851
3.3524473 -0.75812328 0.83315474
3.3668554 -0.75409883 0.83303219
3.35337 -0.7602067 0.87321001
3.3677781 -0.75618225 0.87308741
3.3524318 -0.75808793 0.83247584
3.3668396 -0.75406349 0.83235329
3.3533857 -0.76024199 0.87388891
3.3677936 -0.7562176 0.8737663
3.352416 -0.75805265 0.83179694
3.3668239 -0.7540282 0.8316744
3.3534012 -0.76027733 0.87456781
3.3678093 -0.75625288 0.87444526
3.3524003 -0.7580173 0.83111805
3.3668084 -0.75399292 0.8309955
3.3534169 -0.76031262 0.8752467
3.3678248 -0.75628817 0.87512416
3.3523848 -0.75798202 0.83043915
3.3667927 -0.75395757 0.8303166
3.3534327 -0.76034796 0.8759256
3.3678405 -0.75632352 0.87580305
3.3523691 -0.75794667 0.82976025
3.3667772 -0.75392228 0.82963765
3.3534482 -0.76038325 0.8766045
3.3678563 -0.7563588 0.87648195
3.3523536 -0.75791138 0.82908136
3.3667614 -0.75388694 0.82895875
3.3534639 -0.76041853 0.87728339
3.3678718 -0.75639415 0.87716085
3.3523378 -0.7578761 0.82840246
3.3667459 -0.75385165 0.82827985
3.3534794 -0.76045388 0.87796229
3.3678875 -0.75642943 0.87783974
3.3523221 -0.75784075 0.82772356
3.3667302 -0.75381631 0.82760096
3.3534951 -0.76048917 0.87864119
3.367903 -0.75646478 0.87851864
3.3523066 -0.75780547 0.82704461
3.3667145 -0.75378102 0.82692206
3.3535106 -0.76052451 0.87932014
3.3679187 -0.75650007 0.87919754
3.3522909 -0.75777012 0.82636571
3.366699 -0.75374568 0.82624316
3.3535264 -0.7605598 0.87999904
3.3679345 -0.75653541 0.87987643
3.3522754 -0.75773484 0.82568681
3.3666832 -0.75371039 0.82556427
3.3535421 -0.76059514 0.88067794
3.36795 -0.7565707 0.88055533
3.3522596 -0.75769949 0.82500792
3.3666677 -0.7536751 0.82488537
3.3535576 -0.76063043 0.88135684
3.3679657 -0.75660598 0.88123423
3.3522439 -0.7576642 0.82432902
3.366652 -0.75363976 0.82420647
3.3535733 -0.76066577 0.88203573
3.3679812 -0.75664133 0.88191319
3.3522284 -0.75762886 0.82365012
3.3666363 -0.75360447 0.82352757
3.3535888 -0.76070106 0.88271463
3.3679969 -0.75667661 0.88259208
3.3522127 -0.75759357 0.82297122
3.3666208 -0.75356913 0.82284868
3.3536046 -0.76073635 0.88339353
3.3680127 -0.75671196 0.88327098
3.3521972 -0.75755829 0.82229233
3.366605 -0.75353384 0.82216972
3.3536203 -0.76077169 0.88407242
3.3680282 -0.75674725 0.88394988
3.3521814 -0.75752294 0.82161343
3.3665895 -0.75349849 0.82149082
3.3536358 -0.76080698 0.88475132
3.3680439 -0.75678259 0.88462877
3.3521657 -0.75748765 0.82093453
3.3665738 -0.75346321 0.82081193
3.3536515 -0.76084232 0.88543022
3.3680594 -0.75681788 0.88530767
3.3521502 -0.75745231 0.82025564
3.3665581 -0.75342792 0.82013303
3.353667 -0.76087761 0.88610911
3.3680751 -0.75685316 0.88598657
3.3521345 -0.75741702 0.81957668
3.3665426 -0.75339258 0.81945413
3.3522458 -0.75933027 0.85284847
3.3679638 -0.75493997 0.85271478
3.3522458 -0.75933027 0.85284847
3.3679638 -0.75493997 0.85271478
3.3522615 -0.75936556 0.85352743
3.3679793 -0.75497526 0.85339367
3.3522303 -0.75929493 0.85216957
3.3679481 -0.75490463 0.85203588
3.3522773 -0.75940084 0.85420632
3.367995 -0.7550106 0.85407257
3.3522146 -0.75925964 0.85149068
3.3679326 -0.75486934 0.85135698
3.3522928 -0.75943619 0.85488522
3.3680108 -0.75504589 0.85475147
3.3521991 -0.7592243 0.85081178
3.3679168 -0.754834 0.85067809
3.3523085 -0.75947148 0.85556412
3.3680263 -0.75508124 0.85543036
3.3521833 -0.75918901 0.85013288
3.3679011 -0.75479871 0.84999919
3.352324 -0.75950682 0.85624301
3.368042 -0.75511652 0.85610932
3.3521676 -0.75915366 0.84945399
3.3678856 -0.75476342 0.84932029
3.3523397 -0.75954211 0.85692191
3.3680575 -0.75515181 0.85678822
3.3521521 -0.75911838 0.84877509
3.3678699 -0.75472808 0.8486414
3.3523555 -0.75957745 0.85760081
3.3680732 -0.75518715 0.85746711
3.3521364 -0.75908303 0.84809619
3.3678544 -0.75469279 0.84796244
3.352371 -0.75961274 0.85827971
3.368089 -0.75522244 0.85814601
3.3521209 -0.75904775 0.84741729
3.3678386 -0.75465745 0.84728354
3.3523867 -0.75964808 0.8589586
3.3681045 -0.75525779 0.85882491
3.3521051 -0.75901246 0.8467384
3.3678229 -0.75462216 0.84660465
3.3524022 -0.75968337 0.8596375
3.3681202 -0.75529307 0.85950381
3.3520896 -0.75897712 0.84605944
3.3678074 -0.75458682 0.84592575
3.3524179 -0.75971866 0.8603164
3.3681357 -0.75532842 0.8601827
3.3520739 -0.75894183 0.84538054
3.3677917 -0.75455153 0.84524685
3.3524337 -0.759754 0.86099535
3.3681514 -0.7553637 0.8608616
3.3520582 -0.75890648 0.84470165
3.3677762 -0.75451618 0.84456795
3.3524492 -0.75978929 0.86167425
3.3681669 -0.75539905 0.8615405
3.3520427 -0.7588712 0.84402275
3.3677604 -0.7544809 0.84388906
3.3524649 -0.75982463 0.86235315
3.3681827 -0.75543433 0.86221939
3.3520269 -0.75883585 0.84334385
3.3677447 -0.75444561 0.84321016
3.3524804 -0.75985992 0.86303204
3.3681984 -0.75546962 0.86289835
3.3520114 -0.75880057 0.84266496
3.3677292 -0.75441027 0.84253126
3.3524961 -0.75989527 0.86371094
3.3682139 -0.75550497 0.86357725
3.3519957 -0.75876522 0.84198606
3.3677135 -0.75437498 0.84185237
3.3525119 -0.75993055 0.86438984
3.3682296 -0.75554025 0.86425614
3.35198 -0.75872993 0.84130716
3.367698 -0.75433964 0.84117347
3.3525274 -0.7599659 0.86506873
3.3682451 -0.7555756 0.86493504
3.3519645 -0.75869465 0.84062827
3.3676822 -0.75430435 0.84049451
3.3525431 -0.76000118 0.86574763
3.3682609 -0.75561088 0.86561394
3.3519487 -0.7586593 0.83994937
3.3676665 -0.754269 0.83981562
3.3525586 -0.76003647 0.86642653
3.3682766 -0.75564623 0.86629283
3.3519332 -0.75862402 0.83927047
3.367651 -0.75423372 0.83913672
3.3525743 -0.76007181 0.86710542
3.3682921 -0.75568151 0.86697173
3.3519175 -0.75858867 0.83859152
3.3676353 -0.75419837 0.83845782
3.3525901 -0.7601071 0.86778432
3.3683078 -0.7557168 0.86765063
3.3519018 -0.75855339 0.83791262
3.3676198 -0.75416309 0.83777893
3.3526056 -0.76014245 0.86846328
3.3683233 -0.75575215 0.86832952
3.3518863 -0.75851804 0.83723372
3.367604 -0.7541278 0.83710003
3.3526213 -0.76017773 0.86914217
3.3683391 -0.75578743 0.86900842
3.3518705 -0.75848275 0.83655483
3.3675885 -0.75409245 0.83642113
3.3526368 -0.76021308 0.86982107
3.3683548 -0.75582278 0.86968732
3.351855 -0.75844741 0.83587593
3.3675728 -0.75405717 0.83574224
3.3526525 -0.76024836 0.87049997
3.3683703 -0.75585806 0.87036628
3.3518393 -0.75841212 0.83519703
3.367557 -0.75402182 0.83506334
3.352668 -0.76028365 0.87117887
3.368386 -0.75589341 0.87104517
3.3518236 -0.75837684 0.83451813
3.3675416 -0.75398654 0.83438444
3.3526838 -0.76031899 0.87185776
3.3684015 -0.7559287 0.87172407
3.3518081 -0.75834149 0.83383924
3.3675258 -0.75395119 0.83370554
3.3526995 -0.76035428 0.87253666
3.3684173 -0.75596404 0.87240297
3.3517923 -0.75830621 0.83316034
3.3675103 -0.75391591 0.83302659
3.352715 -0.76038963 0.87321556
3.368433 -0.75599933 0.87308186
3.3517768 -0.75827086 0.83248144
3.3674946 -0.75388056 0.83234769
3.3527308 -0.76042491 0.87389445
3.3684485 -0.75603461 0.87376076
3.3517611 -0.75823557 0.83180255
3.3674788 -0.75384527 0.83166879
3.3527462 -0.76046026 0.87457335
3.3684642 -0.75606996 0.87443966
3.3517454 -0.75820023 0.83112359
3.3674634 -0.75380999 0.8309899
3.352762 -0.76049554 0.87525225
3.3684797 -0.75610524 0.87511855
3.3517299 -0.75816494 0.83044469
3.3674476 -0.75377464 0.830311
3.3527777 -0.76053089 0.8759312
3.3684955 -0.75614059 0.87579745
3.3517141 -0.7581296 0.8297658
3.3674321 -0.75373936 0.8296321
3.3527932 -0.76056617 0.8766101
3.3685112 -0.75617588 0.87647635
3.3516986 -0.75809431 0.8290869
3.3674164 -0.75370401 0.82895321
3.352809 -0.76060146 0.877289
3.3685267 -0.75621122 0.87715524
3.3516829 -0.75805902 0.828408
3.3674006 -0.75366873 0.82827431
3.3528244 -0.76063681 0.87796789
3.3685424 -0.75624651 0.8778342
3.3516672 -0.75802368 0.82772911
3.3673851 -0.75363338 0.82759541
3.3528402 -0.76067209 0.87864679
3.3685579 -0.75628185 0.8785131
3.3516517 -0.75798839 0.82705021
3.3673694 -0.75359809 0.82691652
3.3528559 -0.76070744 0.87932569
3.3685737 -0.75631714 0.87919199
3.3516359 -0.75795305 0.82637131
3.3673539 -0.75356275 0.82623762
3.3528714 -0.76074272 0.88000458
3.3685894 -0.75635242 0.87987089
3.3516204 -0.75791776 0.82569242
3.3673382 -0.75352746 0.82555866
3.3528872 -0.76077807 0.88068348
3.3686049 -0.75638777 0.88054979
3.3516047 -0.75788242 0.82501352
3.3673224 -0.75349218 0.82487977
3.3529027 -0.76081336 0.88136238
3.3686206 -0.75642306 0.88122869
3.3515892 -0.75784713 0.82433462
3.3673069 -0.75345683 0.82420087
3.3529184 -0.7608487 0.88204128
3.3686361 -0.7564584 0.88190758
3.3515735 -0.75781178 0.82365566
3.3672912 -0.75342155 0.82352197
3.3529341 -0.76088399 0.88272017
3.3686519 -0.75649369 0.88258648
3.3515577 -0.7577765 0.82297677
3.3672757 -0.7533862 0.82284307
3.3529496 -0.76091927 0.88339913
3.3686674 -0.75652903 0.88326538
3.3515422 -0.75774121 0.82229787
3.36726 -0.75335091 0.82216418
3.3529654 -0.76095462 0.88407803
3.3686831 -0.75656432 0.88394427
3.3515265 -0.75770587 0.82161897
3.3672442 -0.75331557 0.82148528
3.3529809 -0.7609899 0.88475692
3.3686988 -0.75659966 0.88462317
3.351511 -0.75767058 0.82094008
3.3672287 -0.75328028 0.82080638
3.3529966 -0.76102525 0.88543582
3.3687143 -0.75663495 0.88530213
3.3514953 -0.75763524 0.82026118
3.367213 -0.75324494 0.82012749
3.3530123 -0.76106054 0.88611472
3.3687301 -0.75667024 0.88598102
3.3514795 -0.75759995 0.81958228
3.3671975 -0.75320965 0.81944859
3.3515911 -0.7595132 0.85285407
3.3686187 -0.75475705 0.85270923
3.3515911 -0.7595132 0.85285407
3.3686187 -0.75475705 0.85270923
3.3516066 -0.75954849 0.85353297
3.3686342 -0.75479233 0.85338813
3.3515754 -0.75947785 0.85217518
3.368603 -0.7547217 0.85203034
3.3516223 -0.75958377 0.85421187
3.36865 -0.75482768 0.85406703
3.3515596 -0.75944257 0.85149628
3.3685873 -0.75468642 0.85135138
3.3516378 -0.75961912 0.85489076
3.3686655 -0.75486296 0.85474592
3.3515441 -0.75940722 0.85081738
3.3685718 -0.75465107 0.85067248
3.3516536 -0.7596544 0.85556966
3.3686812 -0.75489825 0.85542482
3.3515284 -0.75937194 0.85013849
3.368556 -0.75461578 0.84999359
3.3516693 -0.75968975 0.85624856
3.3686969 -0.7549336 0.85610372
3.3515129 -0.75933659 0.84945953
3.3685405 -0.75458044 0.84931469
3.3516848 -0.75972503 0.85692745
3.3687124 -0.75496888 0.85678262
3.3514972 -0.7593013 0.84878063
3.3685248 -0.75454515 0.84863579
3.3517005 -0.75976038 0.85760641
3.3687282 -0.75500423 0.85746151
3.3514814 -0.75926596 0.84810174
3.3685091 -0.75450987 0.8479569
3.351716 -0.75979567 0.85828531
3.3687437 -0.75503951 0.85814041
3.3514659 -0.75923067 0.84742284
3.3684936 -0.75447452 0.847278
3.3517318 -0.75983101 0.8589642
3.3687594 -0.75507486 0.85881931
3.3514502 -0.75919539 0.84674394
3.3684778 -0.75443923 0.8465991
3.3517473 -0.7598663 0.8596431
3.3687751 -0.75511014 0.85949826
3.3514347 -0.75916004 0.84606504
3.3684623 -0.75440389 0.84592021
3.351763 -0.75990158 0.860322
3.3687906 -0.75514549 0.86017716
3.351419 -0.75912476 0.84538615
3.3684466 -0.7543686 0.84524131
3.3517787 -0.75993693 0.8610009
3.3688064 -0.75518078 0.86085606
3.3514032 -0.75908941 0.84470725
3.3684311 -0.75433326 0.84456241
3.3517942 -0.75997221 0.86167979
3.3688219 -0.75521606 0.86153495
3.3513877 -0.75905412 0.84402835
3.3684154 -0.75429797 0.84388345
3.35181 -0.76000756 0.86235869
3.3688376 -0.75525141 0.86221385
3.351372 -0.75901878 0.84334946
3.3683996 -0.75426269 0.84320456
3.3518255 -0.76004285 0.86303759
3.3688533 -0.75528669 0.86289275
3.3513565 -0.75898349 0.8426705
3.3683841 -0.75422734 0.84252566
3.3518412 -0.76007819 0.86371648
3.3688688 -0.75532204 0.86357164
3.3513408 -0.75894815 0.8419916
3.3683684 -0.75419205 0.84184676
3.3518569 -0.76011348 0.86439538
3.3688846 -0.75535733 0.86425054
3.351325 -0.75891286 0.84131271
3.3683529 -0.75415671 0.84116787
3.3518724 -0.76014882 0.86507434
3.3689001 -0.75539267 0.86492944
3.3513095 -0.75887758 0.84063381
3.3683372 -0.75412142 0.84048897
3.3518882 -0.76018411 0.86575323
3.3689158 -0.75542796 0.86560833
3.3512938 -0.75884223 0.83995491
3.3683214 -0.75408608 0.83981007
3.3519037 -0.7602194 0.86643213
3.3689315 -0.7554633 0.86628723
3.3512783 -0.75880694 0.83927602
3.3683059 -0.75405079 0.83913118
3.3519194 -0.76025474 0.86711103
3.368947 -0.75549859 0.86696619
3.3512626 -0.7587716 0.83859712
3.3682902 -0.75401545 0.83845228
3.3519351 -0.76029003 0.86778992
3.3689628 -0.75553387 0.86764508
3.3512468 -0.75873631 0.83791822
3.3682747 -0.75398016 0.83777338
3.3519506 -0.76032537 0.86846882
3.3689783 -0.75556922 0.86832398
3.3512313 -0.75870097 0.83723933
3.368259 -0.75394487 0.83709449
3.3519664 -0.76036066 0.86914772
3.368994 -0.75560451 0.86900288
3.3512156 -0.75866568 0.83656043
3.3682432 -0.75390953 0.83641553
3.3519819 -0.760396 0.86982661
3.3690095 -0.75563985 0.86968178
3.3512001 -0.75863034 0.83588153
3.3682277 -0.75387424 0.83573663
3.3519976 -0.76043129 0.87050551
3.3690252 -0.75567514 0.87036067
3.3511844 -0.75859505 0.83520257
3.368212 -0.7538389 0.83505774
3.3520133 -0.76046664 0.87118441
3.369041 -0.75571048 0.87103957
3.3511689 -0.75855976 0.83452368
3.3681965 -0.75380361 0.83437884
3.3520288 -0.76050192 0.87186331
3.3690565 -0.75574577 0.87171847
3.3511531 -0.75852442 0.83384478
3.3681808 -0.75376827 0.83369994
3.3520446 -0.76053721 0.87254226
3.3690722 -0.75578111 0.87239736
3.3511374 -0.75848913 0.83316588
3.368165 -0.75373298 0.83302104
3.3520601 -0.76057255 0.87322116
3.3690877 -0.7558164 0.87307626
3.3511219 -0.75845379 0.83248699
3.3681495 -0.75369763 0.83234215
3.3520758 -0.76060784 0.87390006
3.3691034 -0.75585169 0.87375522
3.3511062 -0.7584185 0.83180809
3.3681338 -0.75366235 0.83166325
3.3520916 -0.76064318 0.87457895
3.3691192 -0.75588703 0.87443411
3.3510907 -0.75838315 0.83112919
3.3681183 -0.75362706 0.83098435
3.352107 -0.76067847 0.87525785
3.3691347 -0.75592232 0.87511301
3.3510749 -0.75834787 0.8304503
3.3681026 -0.75359172 0.83030546
3.3521228 -0.76071382 0.87593675
3.3691504 -0.75595766 0.87579191
3.3510592 -0.75831252 0.8297714
3.3680868 -0.75355643 0.82962656
3.3521383 -0.7607491 0.87661564
3.3691659 -0.75599295 0.8764708
3.3510437 -0.75827724 0.8290925
3.3680713 -0.75352108 0.8289476
3.352154 -0.76078445 0.87729454
3.3691816 -0.75602829 0.8771497
3.351028 -0.75824195 0.82841361
3.3680556 -0.7534858 0.82826871
3.3521698 -0.76081973 0.87797344
3.3691974 -0.75606358 0.8778286
3.3510125 -0.75820661 0.82773465
3.3680401 -0.75345045 0.82758981
3.3521852 -0.76085502 0.87865233
3.3692129 -0.75609893 0.87850749
3.3509967 -0.75817132 0.82705575
3.3680243 -0.75341517 0.82691091
3.352201 -0.76089036 0.87933123
3.3692286 -0.75613421 0.87918639
3.350981 -0.75813597 0.82637686
3.3680086 -0.75337982 0.82623202
3.3522165 -0.76092565 0.88001019
3.3692441 -0.7561695 0.87986529
3.3509655 -0.75810069 0.82569796
3.3679931 -0.75334454 0.82555312
3.3522322 -0.760961 0.88068908
3.3692598 -0.75620484 0.88054419
3.3509498 -0.75806534 0.82501906
3.3679774 -0.75330925 0.82487422
3.3522477 -0.76099628 0.88136798
3.3692756 -0.75624013 0.88122314
3.3509343 -0.75803006 0.82434016
3.3679619 -0.7532739 0.82419533
3.3522635 -0.76103163 0.88204688
3.3692911 -0.75627548 0.88190204
3.3509185 -0.75799477 0.82366127
3.3679461 -0.75323862 0.82351643
3.3522792 -0.76106691 0.88272578
3.3693068 -0.75631076 0.88258094
3.3509028 -0.75795943 0.82298237
3.3679307 -0.75320327 0.82283753
3.3522947 -0.76110226 0.88340467
3.3693223 -0.75634611 0.88325983
3.3508873 -0.75792414 0.82230347
3.3679149 -0.75316799 0.82215863
3.3523104 -0.76113755 0.88408357
3.369338 -0.75638139 0.88393873
3.3508716 -0.75788879 0.82162458
3.3678992 -0.75313264 0.82147968
3.3523259 -0.76117283 0.88476247
3.3693538 -0.75641674 0.88461763
3.3508561 -0.75785351 0.82094568
3.3678837 -0.75309736 0.82080078
3.3523417 -0.76120818 0.88544136
3.3693693 -0.75645202 0.88529652
3.3508403 -0.75781816 0.82026672
3.3678679 -0.75306201 0.82012188
3.3523574 -0.76124346 0.88612026
3.369385 -0.75648731 0.88597542
3.3508246 -0.75778288 0.81958783
3.3678524 -0.75302672 0.81944299
3.3509362 -0.75969613 0.85285962
3.3692737 -0.75457412 0.85270363
3.3509362 -0.75969613 0.85285962
3.3692737 -0.75457412 0.85270363
3.3509517 -0.75973141 0.85353851
3.3692892 -0.75460941 0.85338253
3.3509204 -0.75966078 0.85218072
3.3692579 -0.75453877 0.85202473
3.3509674 -0.7597667 0.85421747
3.3693049 -0.75464475 0.85406142
3.3509047 -0.75962549 0.85150182
3.3692422 -0.75450349 0.85134584
3.3509829 -0.75980204 0.85489637
3.3693204 -0.75468004 0.85474032
3.3508892 -0.75959015 0.85082293
3.3692267 -0.75446814 0.85066694
3.3509986 -0.75983733 0.85557526
3.3693361 -0.75471532 0.85541928
3.3508735 -0.75955486 0.85014403
3.369211 -0.75443286 0.84998804
3.3510144 -0.75987267 0.85625416
3.3693519 -0.75475067 0.85609818
3.350858 -0.75951952 0.84946513
3.3691955 -0.75439751 0.84930915
3.3510299 -0.75990796 0.85693306
3.3693674 -0.75478595 0.85677707
3.3508422 -0.75948423 0.84878623
3.3691797 -0.75436223 0.84863025
3.3510456 -0.75994331 0.85761195
3.3693831 -0.7548213 0.85745597
3.3508267 -0.75944889 0.84810734
3.369164 -0.75432694 0.84795135
3.3510611 -0.75997859 0.85829085
3.3693986 -0.75485659 0.85813487
3.350811 -0.7594136 0.84742844
3.3691485 -0.75429159 0.8472724
3.3510768 -0.76001394 0.85896975
3.3694143 -0.75489193 0.85881376
3.3507953 -0.75937831 0.84674954
3.3691328 -0.75425631 0.8465935
3.3510926 -0.76004922 0.85964864
3.3694298 -0.75492722 0.85949266
3.3507798 -0.75934297 0.84607059
3.3691173 -0.75422096 0.8459146
3.3511081 -0.76008451 0.86032754
3.3694456 -0.75496256 0.86017156
3.350764 -0.75930768 0.84539169
3.3691015 -0.75418568 0.84523571
3.3511238 -0.76011986 0.86100644
3.3694613 -0.75499785 0.86085045
3.3507485 -0.75927234 0.84471279
3.3690858 -0.75415033 0.84455681
3.3511393 -0.76015514 0.8616854
3.3694768 -0.75503314 0.86152935
3.3507328 -0.75923705 0.8440339
3.3690703 -0.75411505 0.84387791
3.351155 -0.76019049 0.86236429
3.3694925 -0.75506848 0.86220825
3.3507171 -0.75920171 0.843355
3.3690546 -0.7540797 0.84319901
3.3511708 -0.76022577 0.86304319
3.369508 -0.75510377 0.8628872
3.3507016 -0.75916642 0.8426761
3.3690391 -0.75404441 0.84252012
3.3511863 -0.76026112 0.86372209
3.3695238 -0.75513911 0.8635661
3.3506858 -0.75913113 0.84199721
3.3690233 -0.75400913 0.84184122
3.351202 -0.7602964 0.86440098
3.3695395 -0.7551744 0.864245
3.3506703 -0.75909579 0.84131831
3.3690076 -0.75397378 0.84116232
3.3512175 -0.76033175 0.86507988
3.369555 -0.75520974 0.86492389
3.3506546 -0.7590605 0.84063941
3.3689921 -0.7539385 0.84048343
3.3512332 -0.76036704 0.86575878
3.3695707 -0.75524503 0.86560279
3.3506389 -0.75902516 0.83996052
3.3689764 -0.75390315 0.83980447
3.351249 -0.76040232 0.86643767
3.3695862 -0.75528038 0.86628169
3.3506234 -0.75898987 0.83928162
3.3689609 -0.75386786 0.83912557
3.3512645 -0.76043767 0.86711657
3.369602 -0.75531566 0.86696059
3.3506076 -0.75895452 0.83860266
3.3689451 -0.75383252 0.83844668
3.3512802 -0.76047295 0.86779547
3.3696177 -0.75535095 0.86763948
3.3505921 -0.75891924 0.83792377
3.3689294 -0.75379723 0.83776778
3.3512957 -0.7605083 0.86847436
3.3696332 -0.75538629 0.86831838
3.3505764 -0.75888389 0.83724487
3.3689139 -0.75376189 0.83708888
3.3513114 -0.76054358 0.86915332
3.3696489 -0.75542158 0.86899728
3.3505607 -0.75884861 0.83656597
3.3688982 -0.7537266 0.83640999
3.3513272 -0.76057893 0.86983222
3.3696644 -0.75545692 0.86967617
3.3505452 -0.75881332 0.83588707
3.3688827 -0.75369132 0.83573109
3.3513427 -0.76061422 0.87051111
3.3696802 -0.75549221 0.87035513
3.3505294 -0.75877798 0.83520818
3.3688669 -0.75365597 0.83505219
3.3513584 -0.76064956 0.87119001
3.3696959 -0.75552756 0.87103403
3.3505139 -0.75874269 0.83452928
3.3688514 -0.75362068 0.8343733
3.3513739 -0.76068485 0.87186891
3.3697114 -0.75556284 0.87171292
3.3504982 -0.75870734 0.83385038
3.3688357 -0.75358534 0.8336944
3.3513896 -0.76072013 0.87254781
3.3697271 -0.75559819 0.87239182
3.3504825 -0.75867206 0.83317149
3.36882 -0.75355005 0.8330155
3.3514051 -0.76075548 0.8732267
3.3697426 -0.75563347 0.87307072
3.350467 -0.75863671 0.83249259
3.3688045 -0.75351471 0.83233654
3.3514209 -0.76079077 0.8739056
3.3697584 -0.75566876 0.87374961
3.3504512 -0.75860143 0.83181363
3.3687887 -0.75347942 0.83165765
3.3514366 -0.76082611 0.8745845
3.3697741 -0.7557041 0.87442851
3.3504357 -0.75856608 0.83113474
3.3687732 -0.75344408 0.83097875
3.3514521 -0.7608614 0.87526339
3.3697896 -0.75573939 0.87510741
3.35042 -0.7585308 0.83045584
3.3687575 -0.75340879 0.83029985
3.3514678 -0.76089674 0.87594229
3.3698053 -0.75577474 0.8757863
3.3504043 -0.75849551 0.82977694
3.3687418 -0.7533735 0.82962096
3.3514833 -0.76093203 0.87662125
3.3698208 -0.75581002 0.8764652
3.3503888 -0.75846016 0.82909805
3.3687263 -0.75333816 0.82894206
3.3514991 -0.76096737 0.87730014
3.3698366 -0.75584537 0.8771441
3.350373 -0.75842488 0.82841915
3.3687105 -0.75330287 0.82826316
3.3515148 -0.76100266 0.87797904
3.3698523 -0.75588065 0.87782305
3.3503575 -0.75838953 0.82774025
3.368695 -0.75326753 0.82758427
3.3515303 -0.76103795 0.87865794
3.3698678 -0.755916 0.87850195
3.3503418 -0.75835425 0.82706136
3.3686793 -0.75323224 0.82690537
3.351546 -0.76107329 0.87933683
3.3698835 -0.75595129 0.87918085
3.3503263 -0.7583189 0.82638246
3.3686635 -0.7531969 0.82622647
3.3515615 -0.76110858 0.88001573
3.369899 -0.75598657 0.87985975
3.3503106 -0.75828362 0.82570356
3.3686481 -0.75316161 0.82554758
3.3515773 -0.76114392 0.88069463
3.3699148 -0.75602192 0.88053864
3.3502948 -0.75824827 0.82502466
3.3686323 -0.75312632 0.82486862
3.351593 -0.76117921 0.88137352
3.3699303 -0.7560572 0.88121754
3.3502793 -0.75821298 0.82434571
3.3686168 -0.75309098 0.82418972
3.3516085 -0.76121455 0.88205242
3.369946 -0.75609255 0.88189644
3.3502636 -0.7581777 0.82366681
3.3686011 -0.75305569 0.82351083
3.3516243 -0.76124984 0.88273132
3.3699617 -0.75612783 0.88257533
3.3502481 -0.75814235 0.82298791
3.3685853 -0.75302035 0.82283193
3.3516397 -0.76128519 0.88341022
3.3699772 -0.75616318 0.88325423
3.3502324 -0.75810707 0.82230902
3.3685699 -0.75298506 0.82215303
3.3516555 -0.76132047 0.88408917
3.369993 -0.75619847 0.88393313
3.3502166 -0.75807172 0.82163012
3.3685541 -0.75294971 0.82147413
3.3516712 -0.76135576 0.88476807
3.3700085 -0.75623381 0.88461208
3.3502011 -0.75803643 0.82095122
3.3685386 -0.75291443 0.82079524
3.3516867 -0.7613911 0.88544697
3.3700242 -0.7562691 0.88529098
3.3501854 -0.75800109 0.82027233
3.3685229 -0.75287908 0.82011634
3.3517025 -0.76142639 0.88612586
3.3700399 -0.75630438 0.88596988
3.3501699 -0.7579658 0.81959343
3.3685071 -0.7528438 0.81943744
3.3502812 -0.75987905 0.85286522
3.3699284 -0.75439119 0.85269809
3.3502812 -0.75987905 0.85286522
3.3699284 -0.75439119 0.85269809
3.3502967 -0.75991434 0.85354412
3.3699441 -0.75442648 0.85337698
3.3502655 -0.75984371 0.85218632
3.3699129 -0.75435585 0.85201919
3.3503125 -0.75994968 0.85422301
3.3699598 -0.75446182 0.85405588
3.35025 -0.75980842 0.85150743
3.3698971 -0.75432056 0.85134029
3.3503282 -0.75998497 0.85490191
3.3699753 -0.75449711 0.85473478
3.3502343 -0.75977308 0.85082853
3.3698816 -0.75428522 0.85066134
3.3503437 -0.76002026 0.85558081
3.3699911 -0.7545324 0.85541368
3.3502185 -0.75973779 0.85014957
3.3698659 -0.75424993 0.84998244
3.3503594 -0.7600556 0.8562597
3.3700066 -0.75456774 0.85609257
3.350203 -0.75970244 0.84947067
3.3698502 -0.75421458 0.84930354
3.3503749 -0.76009089 0.8569386
3.3700223 -0.75460303 0.85677147
3.3501873 -0.75966716 0.84879178
3.3698347 -0.7541793 0.84862465
3.3503907 -0.76012623 0.8576175
3.370038 -0.75463837 0.85745037
3.3501718 -0.75963187 0.84811288
3.3698189 -0.75414401 0.84794575
3.3504064 -0.76016152 0.85829645
3.3700535 -0.75467366 0.85812926
3.3501561 -0.75959653 0.84743398
3.3698034 -0.75410867 0.84726685
3.3504219 -0.76019686 0.85897535
3.3700693 -0.75470901 0.85880822
3.3501403 -0.75956124 0.84675509
3.3697877 -0.75407338 0.84658796
3.3504376 -0.76023215 0.85965425
3.3700848 -0.75474429 0.85948712
3.3501248 -0.7595259 0.84607619
3.369772 -0.75403804 0.84590906
3.3504531 -0.7602675 0.86033314
3.3701005 -0.75477964 0.86016601
3.3501091 -0.75949061 0.84539729
3.3697565 -0.75400275 0.84523016
3.3504689 -0.76030278 0.86101204
3.3701162 -0.75481492 0.86084491
3.3500936 -0.75945526 0.8447184
3.3697407 -0.7539674 0.84455127
3.3504844 -0.76033807 0.86169094
3.3701317 -0.75485021 0.86152381
3.3500779 -0.75941998 0.8440395
3.3697252 -0.75393212 0.84387237
3.3505001 -0.76037341 0.86236984
3.3701475 -0.75488555 0.8622027
3.3500621 -0.75938463 0.8433606
3.3697095 -0.75389677 0.84319341
3.3505158 -0.7604087 0.86304873
3.370163 -0.75492084 0.8628816
3.3500466 -0.75934935 0.84268165
3.369694 -0.75386149 0.84251451
3.3505313 -0.76044405 0.86372763
3.3701787 -0.75495619 0.8635605
3.3500309 -0.75931406 0.84200275
3.3696783 -0.7538262 0.84183562
3.3505471 -0.76047933 0.86440653
3.3701944 -0.75499147 0.86423939
3.3500154 -0.75927871 0.84132385
3.3696625 -0.75379086 0.84115672
3.3505626 -0.76051468 0.86508542
3.3702099 -0.75502682 0.86491829
3.3499997 -0.75924343 0.84064496
3.369647 -0.75375557 0.84047782
3.3505783 -0.76054996 0.86576438
3.3702257 -0.7550621 0.86559719
3.3499839 -0.75920808 0.83996606
3.3696313 -0.75372022 0.83979893
3.350594 -0.76058525 0.86644328
3.3702412 -0.75509745 0.86627614
3.3499684 -0.7591728 0.83928716
3.3696158 -0.75368494 0.83912003
3.3506095 -0.76062059 0.86712217
3.3702569 -0.75513273 0.86695504
3.3499527 -0.75913745 0.83860826
3.3696001 -0.75364959 0.83844113
3.3506253 -0.76065588 0.86780107
3.3702724 -0.75516802 0.86763394
3.3499372 -0.75910217 0.83792937
3.3695843 -0.75361431 0.83776224
3.3506408 -0.76069123 0.86847997
3.3702881 -0.75520337 0.86831284
3.3499215 -0.75906682 0.83725047
3.3695688 -0.75357896 0.83708334
3.3506565 -0.76072651 0.86915886
3.3703039 -0.75523865 0.86899173
3.349906 -0.75903153 0.83657157
3.3695531 -0.75354367 0.83640444
3.3506722 -0.76076186 0.86983776
3.3703194 -0.755274 0.86967063
3.3498902 -0.75899625 0.83589268
3.3695376 -0.75350839 0.83572549
3.3506877 -0.76079714 0.87051666
3.3703351 -0.75530928 0.87034953
3.3498745 -0.7589609 0.83521372
3.3695219 -0.75347304 0.83504659
3.3507035 -0.76083249 0.87119555
3.3703506 -0.75534463 0.87102842
3.349859 -0.75892562 0.83453482
3.3695061 -0.75343776 0.83436769
3.350719 -0.76086777 0.87187445
3.3703663 -0.75537992 0.87170732
3.3498433 -0.75889027 0.83385593
3.3694906 -0.75340241 0.8336888
3.3507347 -0.76090306 0.87255335
3.3703821 -0.7554152 0.87238622
3.3498278 -0.75885499 0.83317703
3.3694749 -0.75336713 0.8330099
3.3507504 -0.76093841 0.87323231
3.3703976 -0.75545055 0.87306511
3.349812 -0.75881964 0.83249813
3.3694594 -0.75333178 0.832331
3.3507659 -0.76097369 0.8739112
3.3704133 -0.75548583 0.87374407
3.3497963 -0.75878435 0.83181924
3.3694437 -0.75329649 0.8316521
3.3507817 -0.76100904 0.8745901
3.3704288 -0.75552118 0.87442297
3.3497808 -0.75874901 0.83114034
3.3694279 -0.75326115 0.83097321
3.3507972 -0.76104432 0.875269
3.3704445 -0.75555646 0.87510186
3.3497651 -0.75871372 0.83046144
3.3694124 -0.75322586 0.83029431
3.3508129 -0.76107967 0.87594789
3.3704603 -0.75559181 0.87578076
3.3497496 -0.75867844 0.82978255
3.3693967 -0.75319058 0.82961541
3.3508286 -0.76111495 0.87662679
3.3704758 -0.7556271 0.87645966
3.3497338 -0.75864309 0.82910365
3.3693812 -0.75315523 0.82893646
3.3508441 -0.7611503 0.87730569
3.3704915 -0.75566244 0.87713856
3.3497181 -0.7586078 0.82842475
3.3693655 -0.75311995 0.82825756
3.3508599 -0.76118559 0.87798458
3.370507 -0.75569773 0.87781745
3.3497026 -0.75857246 0.8277458
3.3693497 -0.7530846 0.82757866
3.3508754 -0.76122087 0.87866348
3.3705227 -0.75573301 0.87849635
3.3496869 -0.75853717 0.8270669
3.3693342 -0.75304931 0.82689977
3.3508911 -0.76125622 0.87934238
3.3705385 -0.75576836 0.87917525
3.3496714 -0.75850183 0.826388
3.3693185 -0.75301397 0.82622087
3.3509068 -0.7612915 0.88002127
3.370554 -0.75580364 0.87985414
3.3496556 -0.75846654 0.8257091
3.369303 -0.75297868 0.82554197
3.3509223 -0.76132685 0.88070023
3.3705697 -0.75583899 0.88053304
3.3496399 -0.7584312 0.82503021
3.3692873 -0.75294334 0.82486308
3.3509381 -0.76136214 0.88137913
3.3705852 -0.75587428 0.881212
3.3496244 -0.75839591 0.82435131
3.3692715 -0.75290805 0.82418418
3.3509536 -0.76139748 0.88205802
3.3706009 -0.75590962 0.88189089
3.3496087 -0.75836062 0.82367241
3.369256 -0.75287277 0.82350528
3.3509693 -0.76143277 0.88273692
3.3706167 -0.75594491 0.88256979
3.3495932 -0.75832528 0.82299352
3.3692403 -0.75283742 0.82282639
3.3509848 -0.76146811 0.88341582
3.3706322 -0.75598025 0.88324869
3.3495774 -0.75828999 0.82231462
3.3692248 -0.75280213 0.82214749
3.3510005 -0.7615034 0.88409472
3.3706479 -0.75601554 0.88392758
3.3495617 -0.75825465 0.82163572
3.3692091 -0.75276679 0.82146853
3.3510163 -0.76153868 0.88477361
3.3706634 -0.75605083 0.88460648
3.3495462 -0.75821936 0.82095677
3.3691936 -0.7527315 0.82078964
3.3510318 -0.76157403 0.88545251
3.3706791 -0.75608617 0.88528538
3.3495305 -0.75818402 0.82027787
3.3691778 -0.75269616 0.82011074
3.3510475 -0.76160932 0.88613141
3.3706949 -0.75612146 0.88596427
3.349515 -0.75814873 0.81959897
3.3691621 -0.75266087 0.81943184
3.3496263 -0.76006198 0.85287076
3.3705833 -0.75420827 0.85269248
3.3496263 -0.76006198 0.85287076
3.3705833 -0.75420827 0.85269248
3.3496418 -0.76009727 0.85354966
3.370599 -0.75424355 0.85337138
3.3496106 -0.76002663 0.85219187
3.3705678 -0.75417292 0.85201359
3.3496575 -0.76013261 0.85422856
3.3706148 -0.75427884 0.85405028
3.3495951 -0.75999135 0.85151297
3.3705521 -0.75413764 0.85133469
3.3496733 -0.7601679 0.85490751
3.3706303 -0.75431418 0.85472924
3.3495793 -0.759956 0.85083407
3.3705366 -0.75410229 0.85065579
3.3496888 -0.76020318 0.85558641
3.370646 -0.75434947 0.85540813
3.3495638 -0.75992072 0.85015517
3.3705208 -0.754067 0.8499769
3.3497045 -0.76023853 0.85626531
3.3706615 -0.75438482 0.85608703
3.3495481 -0.75988537 0.84947628
3.3705051 -0.75403166 0.849298
3.34972 -0.76027381 0.8569442
3.3706772 -0.7544201 0.85676593
3.3495324 -0.75985008 0.84879738
3.3704896 -0.75399637 0.8486191
3.3497357 -0.76030916 0.8576231
3.3706927 -0.75445545 0.85744482
3.3495169 -0.7598148 0.84811848
3.3704739 -0.75396109 0.84794021
3.3497515 -0.76034445 0.858302
3.3707085 -0.75449073 0.85812372
3.3495011 -0.75977945 0.84743959
3.3704584 -0.75392574 0.84726131
3.349767 -0.76037979 0.85898089
3.3707242 -0.75452608 0.85880262
3.3494856 -0.75974417 0.84676063
3.3704426 -0.75389045 0.84658235
3.3497827 -0.76041508 0.85965979
3.3707397 -0.75456136 0.85948151
3.3494699 -0.75970882 0.84608173
3.3704269 -0.75385511 0.84590346
3.3497982 -0.76045042 0.86033869
3.3707554 -0.75459665 0.86016041
3.3494542 -0.75967354 0.84540284
3.3704114 -0.75381982 0.84522456
3.3498139 -0.76048571 0.86101758
3.3707709 -0.754632 0.86083931
3.3494387 -0.75963819 0.84472394
3.3703957 -0.75378448 0.84454566
3.3498297 -0.76052099 0.86169648
3.3707867 -0.75466728 0.8615182
3.3494229 -0.7596029 0.84404504
3.3703802 -0.75374919 0.84386677
3.3498452 -0.76055634 0.86237544
3.3708024 -0.75470263 0.86219716
3.3494074 -0.75956756 0.84336615
3.3703644 -0.75371385 0.84318787
3.3498609 -0.76059163 0.86305434
3.3708179 -0.75473791 0.86287606
3.3493917 -0.75953227 0.84268725
3.3703487 -0.75367856 0.84250897
3.3498764 -0.76062697 0.86373323
3.3708336 -0.75477326 0.86355495
3.349376 -0.75949699 0.84200835
3.3703332 -0.75364327 0.84183007
3.3498921 -0.76066226 0.86441213
3.3708491 -0.75480855 0.86423385
3.3493605 -0.75946164 0.84132946
3.3703175 -0.75360793 0.84115118
3.3499079 -0.7606976 0.86509103
3.3708649 -0.75484389 0.86491275
3.3493447 -0.75942636 0.84065056
3.370302 -0.75357264 0.84047228
3.3499234 -0.76073289 0.86576992
3.3708806 -0.75487918 0.86559165
3.3493292 -0.75939101 0.83997166
3.3702862 -0.7535373 0.83979332
3.3499391 -0.76076823 0.86644882
3.3708961 -0.75491446 0.86627054
3.3493135 -0.75935572 0.83929271
3.3702705 -0.75350201 0.83911443
3.3499546 -0.76080352 0.86712772
3.3709118 -0.75494981 0.86694944
3.3492978 -0.75932038 0.83861381
3.370255 -0.75346667 0.83843553
3.3499703 -0.76083881 0.86780661
3.3709273 -0.75498509 0.86762834
3.3492823 -0.75928509 0.83793491
3.3702393 -0.75343138 0.83775663
3.3499861 -0.76087415 0.86848551
3.3709431 -0.75502044 0.86830723
3.3492665 -0.75924975 0.83725601
3.3702238 -0.75339603 0.83707774
3.3500016 -0.76090944 0.86916441
3.3709588 -0.75505573 0.86898613
3.349251 -0.75921446 0.83657712
3.370208 -0.75336075 0.83639884
3.3500173 -0.76094478 0.86984336
3.3709743 -0.75509107 0.86966509
3.3492353 -0.75917917 0.83589822
